1.375000000000000111e-01,1.174999999999999933e-01,1.525907784933647537e+00
1.449999999999999900e-01,3.749999999999999861e-02,1.426684512493363810e+00
4.000000000000000083e-02,2.500000000000000052e-03,4.203813747052381977e+00
1.400000000000000133e-01,2.624999999999999903e-02,1.624091698296052710e+00
6.750000000000000444e-02,1.350000000000000089e-01,5.361982264930709619e+00
1.250000000000000069e-02,6.250000000000000000e-02,1.894901817459428983e-01
7.499999999999999722e-02,1.250000000000000000e-01,3.963231610425486107e+00
1.037499999999999950e-01,6.625000000000000333e-02,2.027263600575527569e+00
7.499999999999999722e-02,1.474999999999999922e-01,5.514310412722165822e+00
2.999999999999999889e-02,5.000000000000000104e-03,4.914489812096904942e+00
6.625000000000000333e-02,1.237499999999999989e-01,2.372324816075734422e+00
2.750000000000000014e-02,5.874999999999999667e-02,2.404701375627338322e-01
8.749999999999999445e-02,9.750000000000000333e-02,2.385339109435582472e+00
2.500000000000000139e-02,7.249999999999999500e-02,3.132374259421878193e+00
1.124999999999999958e-02,5.249999999999999806e-02,3.541867733487205960e+00
5.000000000000000278e-02,1.387500000000000122e-01,2.435775365141937154e+00
1.400000000000000133e-01,1.375000000000000111e-01,3.452120188847238147e+00
8.624999999999999334e-02,1.100000000000000006e-01,5.180353438271581012e+00
5.750000000000000250e-02,1.062499999999999972e-01,3.527811592378299999e+00
8.750000000000000833e-03,8.624999999999999334e-02,1.407583711110247604e+00
1.750000000000000167e-02,4.875000000000000167e-02,2.887878582596073329e+00
9.625000000000000222e-02,3.749999999999999861e-02,2.284068633322804853e+00
1.224999999999999978e-01,6.500000000000000222e-02,2.108714427033147043e+00
6.500000000000000222e-02,1.049999999999999961e-01,2.537371133730606854e+00
6.375000000000000111e-02,9.500000000000000111e-02,4.770450504360559840e+00
1.287500000000000033e-01,1.187499999999999944e-01,2.367956333926000134e+00
1.150000000000000050e-01,6.500000000000000222e-02,3.423455905281375777e+00
7.249999999999999500e-02,4.374999999999999722e-02,7.928720134093796279e-01
6.625000000000000333e-02,1.250000000000000026e-03,3.541436812360858166e+00
8.500000000000000611e-02,5.999999999999999778e-02,2.109877528886515474e+00
1.387500000000000122e-01,7.499999999999999722e-02,2.819360973953930039e+00
1.100000000000000006e-01,1.250000000000000069e-02,2.208717845074531283e+00
1.262500000000000011e-01,5.500000000000000028e-02,3.716042926027154358e+00
7.124999999999999389e-02,8.375000000000000500e-02,3.513685305548530202e+00
5.750000000000000250e-02,1.137500000000000039e-01,4.036354487206499364e-01
1.449999999999999900e-01,1.375000000000000007e-02,5.000143267668577529e+00
7.499999999999999722e-03,5.999999999999999778e-02,2.384170213403030925e+00
1.487499999999999933e-01,1.449999999999999900e-01,2.003848584736784399e+00
7.624999999999999833e-02,1.000000000000000056e-01,4.771690826784990236e+00
1.300000000000000044e-01,1.237499999999999989e-01,3.867006381233792922e+00
3.125000000000000000e-02,1.487499999999999933e-01,3.231656007809877718e+00
1.275000000000000022e-01,8.500000000000000611e-02,4.946857603040609064e+00
5.000000000000000104e-03,7.875000000000000056e-02,3.129735084558229463e+00
1.337500000000000078e-01,1.250000000000000000e-01,3.792674235427170082e+00
2.875000000000000125e-02,1.262500000000000011e-01,4.810443139323916206e+00
9.750000000000000333e-02,8.250000000000000389e-02,4.099658701298105612e+00
4.750000000000000056e-02,4.624999999999999944e-02,5.288847632915585351e-01
7.124999999999999389e-02,8.500000000000000611e-02,4.293012891800850994e+00
7.249999999999999500e-02,7.875000000000000056e-02,4.000810458957973381e+00
6.875000000000000555e-02,6.500000000000000222e-02,5.070454671609784469e+00
1.024999999999999939e-01,1.112500000000000017e-01,2.180080986482808569e+00
1.074999999999999983e-01,5.999999999999999778e-02,5.427795932848383131e+00
1.874999999999999931e-02,2.624999999999999903e-02,-2.066651653316120552e-01
3.874999999999999972e-02,8.375000000000000500e-02,2.163354127540316085e+00
9.500000000000000111e-02,2.249999999999999917e-02,3.140327030512405582e+00
1.449999999999999900e-01,1.449999999999999900e-01,2.772730531569533419e+00
8.125000000000000278e-02,9.124999999999999778e-02,2.563884398267473053e+00
1.250000000000000069e-02,5.000000000000000104e-03,1.820331933107781852e+00
4.750000000000000056e-02,5.000000000000000278e-02,4.611624306042907406e+00
2.000000000000000042e-02,9.124999999999999778e-02,2.026378803233636283e+00
6.250000000000000347e-03,5.999999999999999778e-02,2.164067485318486916e+00
7.749999999999999944e-02,9.124999999999999778e-02,3.496192876536096339e+00
8.999999999999999667e-02,7.624999999999999833e-02,4.162968502089104739e+00
8.250000000000000389e-02,2.750000000000000014e-02,3.633667513321612752e+00
9.875000000000000444e-02,1.037499999999999950e-01,1.219854677707859603e+00
5.625000000000000139e-02,1.387500000000000122e-01,4.485701613129146281e+00
5.500000000000000028e-02,1.125000000000000028e-01,2.207253483278993400e+00
1.000000000000000056e-01,4.875000000000000167e-02,1.095815187052589623e+00
1.337500000000000078e-01,6.250000000000000347e-03,4.156760941131033782e+00
3.624999999999999750e-02,7.374999999999999611e-02,3.869679234617389607e+00
6.750000000000000444e-02,1.037499999999999950e-01,4.989957310685755765e+00
7.000000000000000666e-02,6.625000000000000333e-02,8.263841308363375493e-01
1.337500000000000078e-01,9.625000000000000222e-02,1.397728349745430476e+00
1.262500000000000011e-01,3.250000000000000111e-02,3.988102941319048078e+00
1.212499999999999967e-01,1.437499999999999889e-01,5.551304160520331266e+00
1.037499999999999950e-01,2.125000000000000153e-02,5.323747784939953931e-01
1.487499999999999933e-01,1.625000000000000056e-02,2.516988100090027380e+00
8.500000000000000611e-02,8.874999999999999556e-02,2.032461500695313283e+00
1.250000000000000069e-02,1.000000000000000056e-01,3.415599264754420883e+00
1.487499999999999933e-01,1.424999999999999878e-01,4.097439405856611927e+00
3.874999999999999972e-02,1.024999999999999939e-01,3.137889277385712106e+00
1.487499999999999933e-01,7.624999999999999833e-02,3.938936871250694249e+00
7.499999999999999722e-02,1.150000000000000050e-01,2.798778350734800302e+00
1.087499999999999994e-01,1.375000000000000111e-01,2.159756434421799209e+00
8.250000000000000389e-02,4.374999999999999722e-02,-1.447641286133323213e-01
1.024999999999999939e-01,1.212499999999999967e-01,3.969166459825931526e+00
1.337500000000000078e-01,2.999999999999999889e-02,4.454902162562431656e+00
1.375000000000000111e-01,1.387500000000000122e-01,4.575901457325127097e+00
6.750000000000000444e-02,2.999999999999999889e-02,1.028217493288071216e+00
1.375000000000000111e-01,1.400000000000000133e-01,2.299881572369721905e+00
1.100000000000000006e-01,1.300000000000000044e-01,4.284006295116984830e+00
6.875000000000000555e-02,6.875000000000000555e-02,5.138254729306101609e+00
7.749999999999999944e-02,1.375000000000000007e-02,4.053133691214789280e+00
1.012500000000000067e-01,8.000000000000000167e-02,3.690648394682146005e+00
1.074999999999999983e-01,5.874999999999999667e-02,1.601991575636381171e-01
1.287500000000000033e-01,9.750000000000000333e-02,1.830433579771716168e+00
2.249999999999999917e-02,1.412499999999999867e-01,3.712305907160762253e-01
1.487499999999999933e-01,7.124999999999999389e-02,3.955722357183034887e+00
1.437499999999999889e-01,8.999999999999999667e-02,2.517986885717655721e+00
8.874999999999999556e-02,9.375000000000000000e-02,3.511168855085086804e+00
8.749999999999999445e-02,8.250000000000000389e-02,2.559319132502975158e+00
1.124999999999999958e-02,1.262500000000000011e-01,5.581666851816744490e+00
1.874999999999999931e-02,9.375000000000000000e-02,1.019294967057686296e+00
2.000000000000000042e-02,1.174999999999999933e-01,4.127980309331387154e+00
3.250000000000000111e-02,9.750000000000000333e-02,3.967967311128620445e+00
2.249999999999999917e-02,2.500000000000000052e-03,2.681370430695031892e+00
5.750000000000000250e-02,3.624999999999999750e-02,1.527949170440224380e+00
7.249999999999999500e-02,8.000000000000000167e-02,4.595097325121202836e+00
2.375000000000000028e-02,1.224999999999999978e-01,3.067390229566454796e+00
2.624999999999999903e-02,8.999999999999999667e-02,4.083514748154294161e+00
1.437499999999999889e-01,3.749999999999999861e-02,3.221409484158057612e+00
4.250000000000000305e-02,1.000000000000000021e-02,2.484062468167393067e+00
1.112500000000000017e-01,0.000000000000000000e+00,-6.550826689984181606e-01
6.124999999999999889e-02,9.875000000000000444e-02,3.450109646259432505e+00
1.112500000000000017e-01,1.287500000000000033e-01,2.156723102781256785e+00
6.625000000000000333e-02,7.499999999999999722e-03,2.082290376716604552e+00
1.400000000000000133e-01,1.400000000000000133e-01,1.910080224451670361e+00
1.125000000000000028e-01,3.500000000000000333e-02,2.841884111459083151e-01
2.624999999999999903e-02,1.162500000000000061e-01,3.405329260422587545e+00
8.874999999999999556e-02,8.999999999999999667e-02,1.091312717659691511e+00
3.375000000000000222e-02,7.749999999999999944e-02,1.335568019488565294e+00
1.449999999999999900e-01,9.875000000000000444e-02,2.328329173210287095e+00
5.000000000000000104e-03,4.000000000000000083e-02,4.972069484882469581e+00
5.124999999999999695e-02,3.250000000000000111e-02,3.502812264446214741e+00
1.074999999999999983e-01,1.125000000000000028e-01,3.997910393510520688e+00
1.137500000000000039e-01,1.000000000000000056e-01,1.193753185146285034e+00
1.037499999999999950e-01,8.749999999999999445e-02,2.972463778684310665e+00
5.999999999999999778e-02,7.374999999999999611e-02,2.114184147642125033e+00
1.300000000000000044e-01,7.499999999999999722e-02,5.240784254141425791e+00
1.037499999999999950e-01,8.624999999999999334e-02,4.584695978858590593e+00
9.875000000000000444e-02,7.499999999999999722e-02,4.559542081066288333e+00
5.124999999999999695e-02,5.874999999999999667e-02,2.022265468047563797e+00
4.875000000000000167e-02,1.062499999999999972e-01,2.555360750680031767e+00
3.749999999999999861e-03,1.012500000000000067e-01,4.560488078709425075e+00
4.250000000000000305e-02,1.212499999999999967e-01,2.708326286261304450e+00
4.374999999999999722e-02,9.875000000000000444e-02,1.960286591084933860e+00
2.500000000000000052e-03,1.237499999999999989e-01,4.070389516176802225e+00
7.499999999999999722e-02,5.000000000000000104e-03,5.898557736609523872e+00
9.375000000000000000e-02,0.000000000000000000e+00,3.808165355229570892e+00
5.874999999999999667e-02,1.750000000000000167e-02,2.077897636369243628e+00
9.124999999999999778e-02,1.424999999999999878e-01,3.348659807392961429e+00
8.874999999999999556e-02,1.750000000000000167e-02,1.597891647618687738e+00
3.250000000000000111e-02,1.124999999999999958e-02,1.066489286014428828e+00
1.750000000000000167e-02,9.750000000000000333e-02,1.408339102409516652e+00
7.499999999999999722e-02,1.012500000000000067e-01,5.342883635928693309e+00
3.375000000000000222e-02,5.374999999999999917e-02,3.438447481285087370e+00
1.237499999999999989e-01,1.362500000000000100e-01,2.960155123542572486e+00
1.187499999999999944e-01,2.999999999999999889e-02,4.772372252354546873e+00
1.024999999999999939e-01,6.124999999999999889e-02,2.643879043279304231e+00
8.874999999999999556e-02,1.499999999999999944e-02,4.640399173677909772e+00
1.199999999999999956e-01,8.500000000000000611e-02,2.802867672548959632e+00
1.424999999999999878e-01,5.874999999999999667e-02,3.735746399265648776e+00
1.874999999999999931e-02,1.400000000000000133e-01,2.724084362364929124e+00
4.875000000000000167e-02,7.875000000000000056e-02,4.442821324529710125e+00
7.124999999999999389e-02,6.625000000000000333e-02,4.627995551442714905e+00
4.624999999999999944e-02,1.499999999999999944e-02,2.425171537053530280e+00
8.125000000000000278e-02,6.750000000000000444e-02,2.298886540005511403e+00
3.375000000000000222e-02,1.049999999999999961e-01,4.108663069153144498e+00
2.249999999999999917e-02,3.749999999999999861e-02,3.285774396098057881e+00
8.874999999999999556e-02,8.250000000000000389e-02,2.227183351209366169e+00
1.262500000000000011e-01,1.250000000000000000e-01,1.688546621127199554e+00
7.749999999999999944e-02,5.124999999999999695e-02,3.450818420448918733e+00
3.500000000000000333e-02,4.875000000000000167e-02,2.029430789157320891e+00
1.250000000000000000e-01,8.375000000000000500e-02,3.692467921414881005e+00
1.874999999999999931e-02,8.000000000000000167e-02,3.356754163384474410e-01
6.375000000000000111e-02,7.499999999999999722e-02,1.820388013592595167e+00
6.124999999999999889e-02,5.374999999999999917e-02,3.286165769973587114e+00
1.287500000000000033e-01,1.375000000000000111e-01,-7.777431700072590104e-02
5.999999999999999778e-02,7.249999999999999500e-02,3.611138537554524408e+00
4.499999999999999833e-02,2.125000000000000153e-02,2.505258312508253038e+00
1.499999999999999944e-02,1.000000000000000056e-01,5.004645504840856240e+00
2.875000000000000125e-02,7.249999999999999500e-02,3.139277090507818002e+00
1.412499999999999867e-01,1.000000000000000021e-02,2.411162461219376940e+00
2.249999999999999917e-02,2.249999999999999917e-02,3.993654223164459616e+00
1.150000000000000050e-01,8.375000000000000500e-02,2.328787564829355894e+00
1.437499999999999889e-01,1.199999999999999956e-01,3.336364694848085843e+00
1.012500000000000067e-01,1.187499999999999944e-01,1.243359973280351305e+00
1.150000000000000050e-01,1.062499999999999972e-01,1.705547290037427333e+00
9.875000000000000444e-02,1.125000000000000028e-01,4.056608135339978105e+00
1.012500000000000067e-01,1.750000000000000167e-02,4.551020453805877608e+00
1.187499999999999944e-01,1.250000000000000026e-03,3.386354725586222525e+00
2.999999999999999889e-02,6.124999999999999889e-02,3.311320547803699554e+00
1.350000000000000089e-01,7.124999999999999389e-02,-5.093363080357335981e-01
3.500000000000000333e-02,8.749999999999999445e-02,2.546696106211312927e+00
1.137500000000000039e-01,1.024999999999999939e-01,5.779444696101647239e+00
0.000000000000000000e+00,1.487499999999999933e-01,4.352398388453071476e+00
3.874999999999999972e-02,1.137500000000000039e-01,2.886526121191641092e+00
5.124999999999999695e-02,2.375000000000000028e-02,3.391092920056780091e+00
8.375000000000000500e-02,5.124999999999999695e-02,3.742328572192349601e+00
3.624999999999999750e-02,6.750000000000000444e-02,3.568262022262349120e+00
1.424999999999999878e-01,4.125000000000000194e-02,3.209855079335432126e+00
1.112500000000000017e-01,1.337500000000000078e-01,2.864206606084412243e+00
2.624999999999999903e-02,0.000000000000000000e+00,3.044990498118630207e+00
2.000000000000000042e-02,3.375000000000000222e-02,3.101002969700344281e+00
8.000000000000000167e-02,4.250000000000000305e-02,3.829939562204074832e+00
1.250000000000000026e-03,6.250000000000000347e-03,2.678448307529409433e+00
1.250000000000000069e-02,7.624999999999999833e-02,4.399280755029203682e+00
1.262500000000000011e-01,1.625000000000000056e-02,2.241166266920874950e+00
8.624999999999999334e-02,1.049999999999999961e-01,2.535947745447333368e-01
1.325000000000000067e-01,9.625000000000000222e-02,1.162713646506028820e+00
5.124999999999999695e-02,4.000000000000000083e-02,3.104379395742989711e+00
1.312500000000000056e-01,7.749999999999999944e-02,5.543661037713108364e+00
1.625000000000000056e-02,1.625000000000000056e-02,4.370851987425642626e+00
1.275000000000000022e-01,1.499999999999999944e-02,2.486842481332694810e+00
9.750000000000000333e-02,1.125000000000000028e-01,4.263520957707204850e+00
2.999999999999999889e-02,1.312500000000000056e-01,2.818207028275301340e+00
8.750000000000000833e-03,7.124999999999999389e-02,1.233262252759521393e+00
5.000000000000000104e-03,1.150000000000000050e-01,1.936936359180744693e+00
1.100000000000000006e-01,1.375000000000000111e-01,3.479016737744041521e+00
7.875000000000000056e-02,1.199999999999999956e-01,2.651250650107898732e+00
1.337500000000000078e-01,8.375000000000000500e-02,1.795068623749245251e+00
1.162500000000000061e-01,1.062499999999999972e-01,4.017452792719702792e+00
1.100000000000000006e-01,2.875000000000000125e-02,2.888062971972841009e+00
3.375000000000000222e-02,1.275000000000000022e-01,1.843705587255922262e+00
7.124999999999999389e-02,1.474999999999999922e-01,1.870195001034869131e+00
1.424999999999999878e-01,3.500000000000000333e-02,2.055388666880999526e+00
1.874999999999999931e-02,3.375000000000000222e-02,3.157996872312930581e+00
1.037499999999999950e-01,3.250000000000000111e-02,5.597435658709105866e+00
3.749999999999999861e-03,1.100000000000000006e-01,2.439961471983016938e+00
4.125000000000000194e-02,1.000000000000000056e-01,4.713219763649083127e+00
2.125000000000000153e-02,8.000000000000000167e-02,2.580460526137423383e+00
7.875000000000000056e-02,1.325000000000000067e-01,9.401238733679257997e-01
9.500000000000000111e-02,9.875000000000000444e-02,2.110063307897160012e+00
1.312500000000000056e-01,6.875000000000000555e-02,2.268459098123065232e+00
6.625000000000000333e-02,6.250000000000000000e-02,2.877763359412995658e+00
3.125000000000000000e-02,9.375000000000000000e-02,2.451466158053969391e+00
9.875000000000000444e-02,1.100000000000000006e-01,3.877801970053992076e+00
1.124999999999999958e-02,1.487499999999999933e-01,3.293347484658724955e+00
1.424999999999999878e-01,1.100000000000000006e-01,2.447589307804753034e+00
3.375000000000000222e-02,1.424999999999999878e-01,4.072509787239534162e+00
1.000000000000000021e-02,1.162500000000000061e-01,2.752197065889463889e+00
3.749999999999999861e-03,4.750000000000000056e-02,3.289807845691893107e+00
1.312500000000000056e-01,8.375000000000000500e-02,3.987435830203886589e+00
5.750000000000000250e-02,5.750000000000000250e-02,1.068163330899400298e+00
3.749999999999999861e-02,3.749999999999999861e-02,3.559262908333272080e+00
5.000000000000000104e-03,4.250000000000000305e-02,2.534999223379942990e+00
8.749999999999999445e-02,7.499999999999999722e-03,1.518779456013564566e+00
8.500000000000000611e-02,5.000000000000000278e-02,2.978536267351128419e+00
1.187499999999999944e-01,1.087499999999999994e-01,3.062966680430459832e+00
8.125000000000000278e-02,1.350000000000000089e-01,6.454113532046907409e+00
2.500000000000000052e-03,1.362500000000000100e-01,2.580142937666165537e+00
1.262500000000000011e-01,3.125000000000000000e-02,1.810517834014218286e+00
7.749999999999999944e-02,9.750000000000000333e-02,3.415731327926892824e+00
2.249999999999999917e-02,8.000000000000000167e-02,2.963182915282415841e+00
5.374999999999999917e-02,1.187499999999999944e-01,2.860603228754578620e+00
4.750000000000000056e-02,7.124999999999999389e-02,2.322023386557964031e+00
3.125000000000000000e-02,5.000000000000000104e-03,3.211055120491352888e+00
1.112500000000000017e-01,7.249999999999999500e-02,2.355436357982613860e+00
8.750000000000000833e-03,7.499999999999999722e-02,3.572483132986759014e+00
1.400000000000000133e-01,5.374999999999999917e-02,2.197261653737150766e+00
2.624999999999999903e-02,8.874999999999999556e-02,1.456269048703526581e+00
1.874999999999999931e-02,1.350000000000000089e-01,4.191423216337056168e+00
3.749999999999999861e-03,1.000000000000000021e-02,2.218027353805713808e+00
5.500000000000000028e-02,2.125000000000000153e-02,2.625506123060747488e+00
1.400000000000000133e-01,4.250000000000000305e-02,3.722464161665842042e+00
6.124999999999999889e-02,5.249999999999999806e-02,2.629014701219876571e+00
1.012500000000000067e-01,1.375000000000000111e-01,2.692999848372397587e+00
1.400000000000000133e-01,9.500000000000000111e-02,2.207014399591086473e+00
8.874999999999999556e-02,1.024999999999999939e-01,3.662096103989753715e+00
1.100000000000000006e-01,6.625000000000000333e-02,3.046270181820344813e+00
3.749999999999999861e-03,1.412499999999999867e-01,1.846142343647193096e+00
2.125000000000000153e-02,1.325000000000000067e-01,3.679197990613280567e+00
8.000000000000000167e-02,4.000000000000000083e-02,5.292297387579150580e+00
5.750000000000000250e-02,4.875000000000000167e-02,3.858844928572823907e+00
7.749999999999999944e-02,3.125000000000000000e-02,6.721210439822358218e-01
1.400000000000000133e-01,1.362500000000000100e-01,1.458482398164055338e+00
1.362500000000000100e-01,9.625000000000000222e-02,6.431613985013666657e-01
8.874999999999999556e-02,1.474999999999999922e-01,3.996407172999683510e+00
1.449999999999999900e-01,5.124999999999999695e-02,2.507841482456002247e+00
1.499999999999999944e-02,1.224999999999999978e-01,4.054095789008953510e-01
1.362500000000000100e-01,1.387500000000000122e-01,1.806054780647486036e+00
1.162500000000000061e-01,6.375000000000000111e-02,4.042013465618599533e+00
5.374999999999999917e-02,1.137500000000000039e-01,2.798014229412323139e+00
7.499999999999999722e-02,1.400000000000000133e-01,2.821336973431240125e+00
1.062499999999999972e-01,2.750000000000000014e-02,-3.684023422201105902e-01
1.287500000000000033e-01,1.499999999999999944e-02,2.855553134613498578e+00
7.499999999999999722e-03,3.749999999999999861e-02,5.338309002688866656e+00
1.300000000000000044e-01,1.262500000000000011e-01,2.117286732042078956e+00
1.124999999999999958e-02,5.750000000000000250e-02,3.505164772903397896e+00
5.124999999999999695e-02,1.499999999999999944e-02,3.073774402131833838e+00
6.250000000000000347e-03,1.000000000000000021e-02,1.614459546022638525e+00
8.750000000000000833e-03,1.375000000000000111e-01,3.592524838380988683e+00
1.150000000000000050e-01,3.624999999999999750e-02,3.106661875541308238e+00
5.625000000000000139e-02,8.874999999999999556e-02,3.070228297418086782e+00
4.125000000000000194e-02,1.275000000000000022e-01,6.579608143380454521e+00
7.499999999999999722e-03,9.625000000000000222e-02,3.679335902766072142e+00
1.625000000000000056e-02,4.250000000000000305e-02,1.571846523065612011e+00
4.624999999999999944e-02,1.424999999999999878e-01,2.862763645840984861e+00
8.999999999999999667e-02,4.499999999999999833e-02,3.673427928769493533e+00
8.624999999999999334e-02,8.250000000000000389e-02,2.598290111329696561e+00
4.624999999999999944e-02,8.749999999999999445e-02,3.179477996611073998e+00
4.750000000000000056e-02,9.124999999999999778e-02,4.675938478213456762e+00
7.749999999999999944e-02,1.300000000000000044e-01,1.628863674314797283e+00
7.000000000000000666e-02,1.012500000000000067e-01,2.370335821200093562e+00
1.750000000000000167e-02,2.249999999999999917e-02,2.647379011865852672e+00
6.500000000000000222e-02,1.062499999999999972e-01,1.459521017279437949e+00
1.350000000000000089e-01,2.875000000000000125e-02,3.420156366169211815e+00
